ply
format ascii 1.0
comment VCGLIB generated
comment TextureFile 0_model_texture.png
element vertex 890
property float x
property float y
property float z
property uchar red                                     { start of vertex color }
property uchar green
property uchar blue
element face 0
property list uchar int vertex_indices
property list uchar float texcoord
end_header
36.52721200069503 66.25866362916771 176.0 117 148 154
37.37668204722281 66.25866362916771 176.0 119 150 158
38.226152093750606 66.25866362916771 176.0 119 149 157
39.075622140278405 66.25866362916771 176.0 123 153 158
39.92509218680618 66.25866362916771 176.0 127 154 158
40.77456223333398 66.25866362916771 176.0 137 160 166
41.62403227986178 66.25866362916771 176.0 133 159 167
42.473502326389564 66.25866362916771 176.0 130 156 162
43.32297237291736 66.25866362916771 176.0 134 161 163
44.17244241944514 66.25866362916771 176.0 138 163 164
45.02191246597294 66.25866362916771 176.0 136 162 164
45.87138251250074 66.25866362916771 176.0 132 159 162
46.720852559028515 66.25866362916771 176.0 135 159 162
47.57032260555631 66.25866362916771 176.0 136 160 163
48.4197926520841 66.25866362916771 176.0 136 161 163
49.2692626986119 66.25866362916771 176.0 132 160 160
50.118732745139695 66.25866362916771 176.0 133 161 160
51.257794852983764 66.63513330887889 177.0 138 164 164
52.11209143386684 66.63513330887889 177.0 140 165 165
52.9663880147499 66.63513330887889 177.0 138 163 165
53.820684595632954 66.63513330887889 177.0 138 163 165
54.67498117651603 66.63513330887889 177.0 138 162 165
55.52927775739907 66.63513330887889 177.0 125 154 157
56.383574338282145 66.63513330887889 177.0 130 158 161
57.23787091916522 66.63513330887889 177.0 132 160 163
58.09216750004827 66.63513330887889 177.0 129 158 163
58.946464080931335 66.63513330887889 177.0 129 158 163
59.80076066181439 66.63513330887889 177.0 121 152 157
60.65505724269746 66.63513330887889 177.0 124 157 161
61.509353823580525 66.63513330887889 177.0 134 164 168
62.36365040446358 66.63513330887889 177.0 130 160 165
63.21794698534665 66.63513330887889 177.0 128 160 166
64.0722435662297 66.63513330887889 177.0 119 151 158
64.92654014711277 66.63513330887889 177.0 118 151 159
65.78083672799583 66.63513330887889 177.0 118 150 158
66.63513330887889 66.63513330887889 177.0 124 156 164
67.48942988976196 66.63513330887889 177.0 125 157 165
68.34372647064504 66.63513330887889 177.0 122 155 163
69.1980230515281 66.63513330887889 177.0 123 155 163
70.05231963241113 66.63513330887889 177.0 120 153 159
70.9066162132942 66.63513330887889 177.0 130 161 166
71.76091279417727 66.63513330887889 177.0 141 172 175
72.61520937506035 66.63513330887889 177.0 141 172 175
73.46950595594342 66.63513330887889 177.0 140 171 174
74.32380253682645 66.63513330887889 177.0 143 169 173
75.17809911770951 66.63513330887889 177.0 147 173 177
76.03239569859258 66.63513330887889 177.0 142 168 172
76.88669227947565 66.63513330887889 177.0 138 167 173
77.74098886035873 66.63513330887889 177.0 132 162 166
78.59528544124176 66.63513330887889 177.0 123 152 160
79.44958202212483 66.63513330887889 177.0 124 153 161
80.3038786030079 66.63513330887889 177.0 122 150 159
81.15817518389096 66.63513330887889 177.0 124 150 164
83.86586095719831 68.1410120277236 181.0 99 128 145
85.20763750796377 68.5174817074348 182.0 53 84 105
86.5590671274398 68.89395138714598 183.0 50 81 105
87.92014981562639 69.27042106685715 184.0 46 83 102
88.80823213699635 69.27042106685715 184.0 48 84 104
90.18379442824876 69.64689074656833 185.0 69 104 129
91.5690097882117 70.02336042627951 186.0 75 111 136
92.96387821688513 70.39983010599069 187.0 76 123 144
93.86644014132092 70.39983010599069 187.0 105 158 178
95.27578817306022 70.77629978570187 188.0 118 175 195
96.69478927351007 71.15276946541306 189.0 117 174 196
97.60700426665639 71.15276946541306 189.0 115 170 192
99.040484970172 71.52923914512424 190.0 117 170 192
100.4836187423982 71.90570882483541 191.0 111 169 192
101.40548680425508 71.90570882483541 191.0 109 167 190
102.86310017954709 72.2821785045466 192.0 107 164 186
104.33036662354965 72.65864818425777 193.0 107 163 185
100.35330231480586 69.27042106685715 184.0 101 156 178
100.69115971967487 68.89395138714598 183.0 103 152 175
101.01936405583335 68.5174817074348 182.0 79 124 150
103.01754927891578 69.27042106685715 184.0 45 85 111
104.47033611985252 69.64689074656833 185.0 50 83 109
105.36324497557771 69.64689074656833 185.0 55 86 114
106.25615383130297 69.64689074656833 185.0 52 82 105
107.1490626870282 69.64689074656833 185.0 47 75 95
107.45796088576559 69.27042106685715 184.0 22 45 62
106.57953163310619 68.1410120277236 181.0 10 26 39
106.8594706257119 67.76454234801243 180.0 22 42 66
107.72824680966079 67.76454234801243 180.0 30 63 96
107.99370619920073 67.38807266830125 179.0 28 69 108
109.46579917755855 67.76454234801243 180.0 10 20 35
115.85130412958281 71.15276946541306 189.0 1 0 0
-116.7635191227291 72.06498445855937 189.0 4 0 0
-119.52912330829967 74.35276174295807 195.0 11 17 23
-118.58794910902174 74.35276174295807 195.0 40 58 63
-117.64677490974378 74.35276174295807 195.0 38 47 52
-116.70560071046584 74.35276174295807 195.0 30 41 44
-115.76442651118789 74.35276174295807 195.0 36 48 46
-115.41208950325306 74.73405795702452 196.0 36 49 49
-114.46608876961984 74.73405795702452 196.0 32 45 47
-114.0992721586192 75.11535417109097 197.0 40 55 55
-113.14844489063073 75.11535417109097 197.0 52 65 68
-112.76714867656426 75.49665038515742 198.0 66 69 74
-112.37619939378726 75.87794659922388 199.0 100 95 89
-111.41571905708824 75.87794659922388 199.0 140 88 68
-110.45523872038919 75.87794659922388 199.0 159 72 34
-109.49475838369014 75.87794659922388 199.0 173 91 41
-108.53427804699112 75.87794659922388 199.0 213 127 91
-107.57379771029208 75.87794659922388 199.0 221 145 102
-106.61331737359305 75.87794659922388 199.0 205 125 85
-105.65283703689401 75.87794659922388 199.0 215 133 94
-104.69235670019496 75.87794659922388 199.0 208 112 77
-103.21061065312662 75.49665038515742 198.0 195 98 57
-102.25495685078285 75.49665038515742 198.0 185 96 57
-101.29930304843907 75.49665038515742 198.0 202 115 83
-100.34364924609531 75.49665038515742 198.0 208 120 85
-99.38799544375155 75.49665038515742 198.0 209 120 82
-98.43234164140777 75.49665038515742 198.0 203 117 77
-97.47668783906401 75.49665038515742 198.0 205 119 78
-96.52103403672025 75.49665038515742 198.0 201 116 73
-95.56538023437649 75.49665038515742 198.0 203 120 79
-94.60972643203272 75.49665038515742 198.0 208 119 79
-93.18107226287235 75.11535417109097 197.0 211 117 78
-92.23024499488386 75.11535417109097 197.0 194 101 60
-91.27941772689536 75.11535417109097 197.0 228 150 112
-90.32859045890687 75.11535417109097 197.0 231 166 130
-89.37776319091837 75.11535417109097 197.0 235 171 136
-88.42693592292989 75.11535417109097 197.0 231 157 118
-87.47610865494138 75.11535417109097 197.0 219 123 80
-86.52528138695288 75.11535417109097 197.0 225 122 73
-85.57445411896441 75.11535417109097 197.0 223 123 80
-84.62362685097591 75.11535417109097 197.0 229 131 88
-83.24806455972352 74.73405795702452 196.0 194 91 45
-82.3020638260903 74.73405795702452 196.0 178 58 17
-81.35606309245706 74.73405795702452 196.0 165 49 10
-80.41006235882386 74.73405795702452 196.0 142 42 4
-79.46406162519062 74.73405795702452 196.0 136 44 7
-78.51806089155741 74.73405795702452 196.0 117 37 8
-77.5720601579242 74.73405795702452 196.0 92 29 12
-76.62605942429096 74.73405795702452 196.0 83 25 8
-75.68005869065775 74.73405795702452 196.0 72 25 10
-74.73405795702452 74.73405795702452 196.0 65 28 20
-73.41158754368011 74.35276174295807 195.0 65 29 16
-72.47041334440217 74.35276174295807 195.0 65 31 18
-70.4287893121223 73.20887310075872 192.0 56 47 52
-69.1401046392648 72.82757688669227 191.0 43 75 106
-67.86107303511785 72.44628067262582 190.0 42 94 140
-66.59169449968144 72.06498445855937 189.0 40 94 143
-65.6794795065351 72.06498445855937 189.0 43 95 132
-64.42458057416451 71.68368824449291 188.0 32 78 110
-63.179334710504456 71.30239203042646 187.0 26 57 81
-61.943741915554945 70.92109581636001 186.0 51 64 81
-60.71780218931596 70.53979960229356 185.0 58 74 83
-59.50151553178754 70.1585033882271 184.0 62 72 81
-58.29488194296965 69.77720717416065 183.0 81 88 92
-57.097901422862314 69.3959109600942 182.0 39 51 57
-55.91057397146552 69.01461474602775 181.0 24 41 48
-53.516612931250826 67.10813367569548 176.0 24 45 57
-52.66714288472304 67.10813367569548 176.0 32 55 67
-51.81767283819525 67.10813367569548 176.0 33 55 69
-50.96820279166746 67.10813367569548 176.0 36 61 77
-50.11873274513966 67.10813367569548 176.0 39 64 79
-49.269262698611875 67.10813367569548 176.0 42 63 78
-48.419792652084084 67.10813367569548 176.0 44 65 80
-47.8406085294515 67.48942988976194 177.0 42 63 79
-46.986311948568435 67.48942988976194 177.0 45 66 81
-46.13201536768537 67.48942988976194 177.0 48 70 85
-45.27771878680231 67.48942988976194 177.0 49 70 86
-44.42342220591925 67.48942988976194 177.0 48 73 89
-43.56912562503619 67.48942988976194 177.0 46 72 86
-42.71482904415312 67.48942988976194 177.0 48 74 86
-41.86053246327006 67.48942988976194 177.0 53 79 91
-41.006235882386996 67.48942988976194 177.0 55 81 94
-40.15193930150394 67.48942988976194 177.0 55 81 93
-39.29764272062087 67.48942988976194 177.0 54 80 94
-38.443346139737805 67.48942988976194 177.0 55 81 95
-37.58904955885475 67.48942988976194 177.0 55 81 95
-36.73475297797169 67.48942988976194 177.0 58 84 95
-35.88045639708863 67.48942988976194 177.0 59 85 95
-35.026159816205556 67.48942988976194 177.0 60 87 98
-34.1718632353225 67.48942988976194 177.0 61 90 102
-33.31756665443944 67.48942988976194 177.0 60 89 98
-32.46327007355637 67.48942988976194 177.0 61 91 101
-31.608973492673304 67.48942988976194 177.0 62 92 103
-30.754676911790245 67.48942988976194 177.0 62 90 104
-29.900380330907183 67.48942988976194 177.0 62 90 104
-29.046083750024124 67.48942988976194 177.0 66 94 106
-28.191787169141055 67.48942988976194 177.0 63 91 104
-27.337490588257992 67.48942988976194 177.0 63 91 104
-26.483194007374934 67.48942988976194 177.0 61 89 103
-25.62889742649187 67.48942988976194 177.0 63 90 105
-24.774600845608813 67.48942988976194 177.0 60 87 102
-23.92030426472574 67.48942988976194 177.0 61 88 103
-23.06600768384268 67.48942988976194 177.0 61 89 105
-22.21171110295962 67.48942988976194 177.0 59 87 103
-21.35741452207656 67.48942988976194 177.0 61 89 105
-20.50311794119349 67.48942988976194 177.0 61 92 105
-19.64882136031044 67.48942988976194 177.0 61 92 105
-18.79452477942737 67.48942988976194 177.0 61 92 105
-17.940228198544297 67.48942988976194 177.0 65 95 109
-17.08593161766125 67.48942988976194 177.0 66 94 109
-16.23163503677818 67.48942988976194 177.0 65 93 108
-15.377338455895128 67.48942988976194 177.0 65 93 108
-14.523041875012057 67.48942988976194 177.0 65 93 108
-13.668745294128987 67.48942988976194 177.0 67 95 112
-12.814448713245936 67.48942988976194 177.0 74 100 119
-11.960152132362866 67.48942988976194 177.0 79 105 121
-11.105855551479795 67.48942988976194 177.0 82 108 124
-10.251558970596745 67.48942988976194 177.0 85 112 127
-9.397262389713674 67.48942988976194 177.0 83 111 128
-8.542965808830624 67.48942988976194 177.0 83 111 126
-7.688669227947553 67.48942988976194 177.0 83 112 124
-6.834372647064484 67.48942988976194 177.0 82 111 129
-5.980076066181433 67.48942988976194 177.0 87 115 131
-5.125779485298363 67.48942988976194 177.0 101 125 140
-4.271482904415312 67.48942988976194 177.0 102 132 138
-3.417186323532242 67.48942988976194 177.0 107 134 146
-2.5628897426491717 67.48942988976194 177.0 106 136 144
-1.708593161766121 67.48942988976194 177.0 115 140 145
-0.8542965808830506 67.48942988976194 177.0 118 144 149
0.0 67.48942988976194 177.0 118 148 153
0.8542965808830703 67.48942988976194 177.0 119 149 155
1.7085931617661405 67.48942988976194 177.0 119 151 160
2.5628897426491912 67.48942988976194 177.0 124 151 161
3.4171863235322615 67.48942988976194 177.0 125 152 162
4.271482904415332 67.48942988976194 177.0 124 155 162
5.1257794852983825 67.48942988976194 177.0 126 158 165
5.980076066181453 67.48942988976194 177.0 128 159 166
6.834372647064503 67.48942988976194 177.0 132 158 163
7.688669227947574 67.48942988976194 177.0 137 163 168
8.542965808830644 67.48942988976194 177.0 137 162 167
9.397262389713694 67.48942988976194 177.0 130 157 165
10.251558970596765 67.48942988976194 177.0 138 165 170
11.105855551479815 67.48942988976194 177.0 141 166 169
11.960152132362886 67.48942988976194 177.0 139 165 169
12.814448713245955 67.48942988976194 177.0 140 166 170
13.668745294129007 67.48942988976194 177.0 149 171 175
14.523041875012076 67.48942988976194 177.0 146 169 173
15.377338455895147 67.48942988976194 177.0 146 170 174
16.231635036778197 67.48942988976194 177.0 145 169 173
17.085931617661267 67.48942988976194 177.0 143 167 171
17.940228198544318 67.48942988976194 177.0 138 162 168
18.794524779427388 67.48942988976194 177.0 133 157 166
19.648821360310457 67.48942988976194 177.0 132 158 168
20.50311794119351 67.48942988976194 177.0 130 156 166
21.357414522076578 67.48942988976194 177.0 126 153 165
22.21171110295963 67.48942988976194 177.0 127 152 168
23.0660076838427 67.48942988976194 177.0 127 153 167
23.92030426472577 67.48942988976194 177.0 127 154 166
24.77460084560882 67.48942988976194 177.0 123 152 161
25.628897426491893 67.48942988976194 177.0 121 152 161
26.483194007374962 67.48942988976194 177.0 118 148 160
27.337490588258014 67.48942988976194 177.0 117 146 159
28.191787169141083 67.48942988976194 177.0 119 150 162
29.046083750024135 67.48942988976194 177.0 119 149 163
29.900380330907204 67.48942988976194 177.0 115 142 159
30.754676911790273 67.48942988976194 177.0 116 141 160
31.608973492673325 67.48942988976194 177.0 113 146 160
32.463270073556394 67.48942988976194 177.0 115 145 157
33.317566654439446 67.48942988976194 177.0 130 154 164
34.17186323532252 67.48942988976194 177.0 125 152 160
35.026159816205585 67.48942988976194 177.0 125 154 162
35.880456397088636 67.48942988976194 177.0 125 155 163
36.73475297797171 67.48942988976194 177.0 119 150 157
37.589049558854754 67.48942988976194 177.0 119 151 158
38.44334613973783 67.48942988976194 177.0 119 152 159
39.2976427206209 67.48942988976194 177.0 119 149 156
40.15193930150395 67.48942988976194 177.0 126 153 157
41.00623588238702 67.48942988976194 177.0 136 161 163
41.86053246327009 67.48942988976194 177.0 132 157 159
42.71482904415314 67.48942988976194 177.0 130 155 155
43.56912562503621 67.48942988976194 177.0 138 164 161
44.42342220591926 67.48942988976194 177.0 138 165 163
45.27771878680233 67.48942988976194 177.0 138 163 164
46.1320153676854 67.48942988976194 177.0 138 162 166
46.98631194856845 67.48942988976194 177.0 136 161 162
47.84060852945152 67.48942988976194 177.0 136 161 161
48.694905110334574 67.48942988976194 177.0 139 164 164
49.54920169121764 67.48942988976194 177.0 135 160 160
50.40349827210071 67.48942988976194 177.0 135 160 160
51.257794852983764 67.48942988976194 177.0 137 162 162
52.11209143386684 67.48942988976194 177.0 137 162 162
52.9663880147499 67.48942988976194 177.0 138 163 165
53.820684595632954 67.48942988976194 177.0 139 165 167
54.67498117651603 67.48942988976194 177.0 137 163 165
55.52927775739907 67.48942988976194 177.0 128 157 160
56.383574338282145 67.48942988976194 177.0 128 158 161
57.23787091916522 67.48942988976194 177.0 130 159 162
58.09216750004827 67.48942988976194 177.0 128 157 162
58.946464080931335 67.48942988976194 177.0 132 160 165
59.80076066181439 67.48942988976194 177.0 125 156 161
60.65505724269746 67.48942988976194 177.0 129 161 164
61.509353823580525 67.48942988976194 177.0 133 165 167
62.36365040446358 67.48942988976194 177.0 130 161 164
63.21794698534665 67.48942988976194 177.0 129 161 164
64.0722435662297 67.48942988976194 177.0 120 153 157
64.92654014711277 67.48942988976194 177.0 122 153 161
65.78083672799583 67.48942988976194 177.0 122 153 162
66.63513330887889 67.48942988976194 177.0 128 160 166
67.48942988976196 67.48942988976194 177.0 124 157 164
68.34372647064504 67.48942988976194 177.0 121 154 161
69.1980230515281 67.48942988976194 177.0 119 153 160
70.05231963241113 67.48942988976194 177.0 123 156 163
70.9066162132942 67.48942988976194 177.0 122 155 161
71.76091279417727 67.48942988976194 177.0 143 174 177
72.61520937506035 67.48942988976194 177.0 145 176 179
73.46950595594342 67.48942988976194 177.0 140 171 174
74.32380253682645 67.48942988976194 177.0 141 167 171
75.17809911770951 67.48942988976194 177.0 146 172 176
76.03239569859258 67.48942988976194 177.0 144 169 173
76.88669227947565 67.48942988976194 177.0 141 171 175
77.74098886035873 67.48942988976194 177.0 133 163 163
78.59528544124176 67.48942988976194 177.0 126 154 163
79.44958202212483 67.48942988976194 177.0 127 157 165
80.3038786030079 67.48942988976194 177.0 124 152 163
81.15817518389096 67.48942988976194 177.0 124 150 164
83.86586095719831 69.01461474602775 181.0 115 145 158
85.20763750796377 69.3959109600942 182.0 62 93 115
86.5590671274398 69.77720717416065 183.0 50 81 105
87.92014981562639 70.1585033882271 184.0 50 85 105
88.80823213699635 70.1585033882271 184.0 49 83 105
90.18379442824876 70.53979960229356 185.0 55 89 112
91.5690097882117 70.92109581636001 186.0 57 94 115
92.96387821688513 71.30239203042646 187.0 86 130 152
93.86644014132092 71.30239203042646 187.0 117 167 187
95.27578817306022 71.68368824449291 188.0 119 175 194
96.69478927351007 72.06498445855937 189.0 119 174 197
97.60700426665639 72.06498445855937 189.0 115 169 192
99.040484970172 72.44628067262582 190.0 114 168 191
100.4836187423982 72.82757688669227 191.0 109 166 189
101.40548680425508 72.82757688669227 191.0 107 163 186
102.86310017954709 73.20887310075872 192.0 107 160 184
103.78979477575923 73.20887310075872 192.0 102 159 179
100.35330231480586 70.1585033882271 184.0 101 153 174
100.14093480317392 69.3959109600942 182.0 98 143 165
101.57441550668958 69.77720717416065 183.0 62 102 130
103.01754927891578 70.1585033882271 184.0 26 63 90
103.34092708071898 69.77720717416065 183.0 36 66 94
104.22418286773363 69.77720717416065 183.0 38 66 95
105.10743865474834 69.77720717416065 183.0 43 69 97
105.41151031913046 69.3959109600942 182.0 41 65 89
105.70592891480203 69.01461474602775 181.0 24 48 67
106.57953163310619 69.01461474602775 181.0 11 33 50
107.4531343514103 69.01461474602775 181.0 26 48 78
108.32673706971445 69.01461474602775 181.0 32 66 101
109.20033978801861 69.01461474602775 181.0 32 67 105
110.07394250632277 69.01461474602775 181.0 36 52 67
117.07724385582178 72.82757688669227 191.0 4 0 0
-116.7635191227291 72.97719945170569 189.0 1 0 0
-119.52912330829967 75.29393594223603 195.0 22 29 38
-118.58794910902174 75.29393594223603 195.0 27 47 53
-117.64677490974378 75.29393594223603 195.0 28 41 41
-116.70560071046584 75.29393594223603 195.0 32 43 44
-115.76442651118789 75.29393594223603 195.0 36 46 50
-114.82325231190993 75.29393594223603 195.0 33 45 48
-113.88207811263199 75.29393594223603 195.0 36 50 51
-113.52008803598662 75.68005869065776 196.0 45 60 60
-113.14844489063073 76.06618143907947 197.0 51 67 70
-112.76714867656426 76.4523041875012 198.0 59 65 74
-112.37619939378726 76.83842693592293 199.0 66 71 69
-111.41571905708824 76.83842693592293 199.0 114 86 72
-110.45523872038919 76.83842693592293 199.0 140 67 35
-109.49475838369014 76.83842693592293 199.0 150 72 24
-108.53427804699112 76.83842693592293 199.0 177 101 60
-107.57379771029208 76.83842693592293 199.0 182 112 75
-106.61331737359305 76.83842693592293 199.0 213 147 111
-105.65283703689401 76.83842693592293 199.0 217 158 126
-104.16626445547037 76.4523041875012 198.0 211 136 102
-103.21061065312662 76.4523041875012 198.0 180 93 55
-102.25495685078285 76.4523041875012 198.0 167 90 54
-101.29930304843907 76.4523041875012 198.0 196 126 96
-100.34364924609531 76.4523041875012 198.0 199 128 95
-99.38799544375155 76.4523041875012 198.0 199 126 93
-98.43234164140777 76.4523041875012 198.0 203 133 94
-97.47668783906401 76.4523041875012 198.0 203 133 95
-96.52103403672025 76.4523041875012 198.0 205 136 98
-95.56538023437649 76.4523041875012 198.0 203 135 96
-94.13189953086084 76.06618143907947 197.0 205 131 94
-93.18107226287235 76.06618143907947 197.0 211 129 94
-92.23024499488386 76.06618143907947 197.0 183 102 66
-91.27941772689536 76.06618143907947 197.0 219 145 111
-90.32859045890687 76.06618143907947 197.0 229 164 126
-89.37776319091837 76.06618143907947 197.0 233 166 127
-88.42693592292989 76.06618143907947 197.0 222 148 110
-87.47610865494138 76.06618143907947 197.0 221 137 97
-86.52528138695288 76.06618143907947 197.0 225 143 100
-85.57445411896441 76.06618143907947 197.0 223 142 100
-84.19406529335674 75.68005869065776 196.0 222 139 98
-83.24806455972352 75.68005869065776 196.0 203 106 69
-82.3020638260903 75.68005869065776 196.0 166 58 17
-81.35606309245706 75.68005869065776 196.0 159 49 14
-80.41006235882386 75.68005869065776 196.0 139 40 5
-79.46406162519062 75.68005869065776 196.0 125 38 7
-78.51806089155741 75.68005869065776 196.0 105 33 7
-77.5720601579242 75.68005869065776 196.0 84 29 12
-76.62605942429096 75.68005869065776 196.0 75 25 7
-75.29393594223602 75.29393594223603 195.0 68 24 12
-74.35276174295807 75.29393594223603 195.0 65 26 20
-73.41158754368011 75.29393594223603 195.0 63 24 14
-72.47041334440217 75.29393594223603 195.0 60 24 17
-70.4287893121223 74.13556769697087 192.0 49 33 38
-69.1401046392648 73.74944494854914 191.0 33 45 63
-67.86107303511785 73.36332220012741 190.0 43 82 123
-66.59169449968144 72.97719945170569 189.0 30 84 135
-65.6794795065351 72.97719945170569 189.0 36 83 126
-64.42458057416451 72.59107670328396 188.0 34 78 113
-63.179334710504456 72.20495395486225 187.0 19 51 80
-61.943741915554945 71.81883120644052 186.0 37 57 76
-60.71780218931596 71.4327084580188 185.0 45 62 70
-59.50151553178754 71.04658570959707 184.0 48 61 67
-58.29488194296965 70.66046296117536 183.0 59 68 73
-57.097901422862314 70.27434021275363 182.0 30 42 48
-55.91057397146552 69.8882174643319 181.0 27 43 51
-53.82068459563293 68.34372647064501 177.0 25 46 57
-52.966388014749874 68.34372647064501 177.0 27 52 67
-52.112091433866816 68.34372647064501 177.0 33 57 74
-51.25779485298376 68.34372647064501 177.0 36 60 76
-50.403498272100684 68.34372647064501 177.0 40 61 79
-49.549201691217625 68.34372647064501 177.0 40 60 77
-48.69490511033456 68.34372647064501 177.0 44 64 81
-47.8406085294515 68.34372647064501 177.0 45 65 82
-46.986311948568435 68.34372647064501 177.0 45 66 81
-46.13201536768537 68.34372647064501 177.0 47 68 83
-45.27771878680231 68.34372647064501 177.0 46 67 83
-44.42342220591925 68.34372647064501 177.0 44 68 85
-43.56912562503619 68.34372647064501 177.0 42 68 82
-42.71482904415312 68.34372647064501 177.0 44 70 82
-41.86053246327006 68.34372647064501 177.0 47 72 87
-41.006235882386996 68.34372647064501 177.0 47 73 87
-40.15193930150394 68.34372647064501 177.0 48 73 89
-39.29764272062087 68.34372647064501 177.0 47 73 87
-38.443346139737805 68.34372647064501 177.0 50 76 90
-37.58904955885475 68.34372647064501 177.0 50 77 91
-36.73475297797169 68.34372647064501 177.0 51 76 91
-35.88045639708863 68.34372647064501 177.0 55 81 95
-35.026159816205556 68.34372647064501 177.0 55 80 95
-34.1718632353225 68.34372647064501 177.0 57 84 96
-33.31756665443944 68.34372647064501 177.0 56 84 95
-32.46327007355637 68.34372647064501 177.0 58 86 95
-31.608973492673304 68.34372647064501 177.0 59 87 97
-30.754676911790245 68.34372647064501 177.0 62 87 101
-29.900380330907183 68.34372647064501 177.0 61 86 101
-29.046083750024124 68.34372647064501 177.0 60 85 98
-28.191787169141055 68.34372647064501 177.0 59 87 99
-27.337490588257992 68.34372647064501 177.0 58 84 96
-26.483194007374934 68.34372647064501 177.0 57 83 95
-25.62889742649187 68.34372647064501 177.0 58 83 98
-24.774600845608813 68.34372647064501 177.0 57 82 97
-23.92030426472574 68.34372647064501 177.0 58 83 98
-23.06600768384268 68.34372647064501 177.0 58 85 101
-22.21171110295962 68.34372647064501 177.0 55 82 97
-21.35741452207656 68.34372647064501 177.0 57 83 97
-20.50311794119349 68.34372647064501 177.0 57 85 99
-19.64882136031044 68.34372647064501 177.0 55 84 98
-18.79452477942737 68.34372647064501 177.0 57 86 99
-17.940228198544297 68.34372647064501 177.0 60 88 103
-17.08593161766125 68.34372647064501 177.0 61 89 105
-16.23163503677818 68.34372647064501 177.0 62 90 105
-15.377338455895128 68.34372647064501 177.0 61 89 105
-14.523041875012057 68.34372647064501 177.0 61 89 105
-13.668745294128987 68.34372647064501 177.0 66 93 109
-12.814448713245936 68.34372647064501 177.0 68 96 112
-11.960152132362866 68.34372647064501 177.0 74 101 116
-11.105855551479795 68.34372647064501 177.0 77 103 119
-10.251558970596745 68.34372647064501 177.0 78 104 120
-9.397262389713674 68.34372647064501 177.0 79 107 120
-8.542965808830624 68.34372647064501 177.0 77 104 120
-7.688669227947553 68.34372647064501 177.0 78 104 122
-6.834372647064484 68.34372647064501 177.0 76 104 123
-5.980076066181433 68.34372647064501 177.0 80 106 124
-5.125779485298363 68.34372647064501 177.0 96 121 136
-4.271482904415312 68.34372647064501 177.0 98 126 136
-3.417186323532242 68.34372647064501 177.0 102 128 144
-2.5628897426491717 68.34372647064501 177.0 102 130 143
-1.708593161766121 68.34372647064501 177.0 114 139 145
-0.8542965808830506 68.34372647064501 177.0 114 140 145
0.0 68.34372647064501 177.0 116 144 149
0.8542965808830703 68.34372647064501 177.0 118 147 153
1.7085931617661405 68.34372647064501 177.0 119 149 158
2.5628897426491912 68.34372647064501 177.0 124 150 160
3.4171863235322615 68.34372647064501 177.0 124 150 160
4.271482904415332 68.34372647064501 177.0 124 152 160
5.1257794852983825 68.34372647064501 177.0 128 156 164
5.980076066181453 68.34372647064501 177.0 132 159 167
6.834372647064503 68.34372647064501 177.0 131 159 164
7.688669227947574 68.34372647064501 177.0 138 166 171
8.542965808830644 68.34372647064501 177.0 134 162 167
9.397262389713694 68.34372647064501 177.0 130 157 165
10.251558970596765 68.34372647064501 177.0 138 165 170
11.105855551479815 68.34372647064501 177.0 140 165 168
11.960152132362886 68.34372647064501 177.0 140 168 171
12.814448713245955 68.34372647064501 177.0 139 164 168
13.668745294129007 68.34372647064501 177.0 150 172 177
14.523041875012076 68.34372647064501 177.0 145 168 172
15.377338455895147 68.34372647064501 177.0 145 169 173
16.231635036778197 68.34372647064501 177.0 146 170 174
17.085931617661267 68.34372647064501 177.0 145 169 173
17.940228198544318 68.34372647064501 177.0 140 165 170
18.794524779427388 68.34372647064501 177.0 133 157 166
19.648821360310457 68.34372647064501 177.0 130 156 166
20.50311794119351 68.34372647064501 177.0 130 156 166
21.357414522076578 68.34372647064501 177.0 124 151 164
22.21171110295963 68.34372647064501 177.0 129 153 169
23.0660076838427 68.34372647064501 177.0 128 156 165
23.92030426472577 68.34372647064501 177.0 125 153 165
24.77460084560882 68.34372647064501 177.0 123 150 164
25.628897426491893 68.34372647064501 177.0 121 152 161
26.483194007374962 68.34372647064501 177.0 119 149 161
27.337490588258014 68.34372647064501 177.0 119 149 162
28.191787169141083 68.34372647064501 177.0 119 150 160
29.046083750024135 68.34372647064501 177.0 119 149 161
29.900380330907204 68.34372647064501 177.0 117 145 159
30.754676911790273 68.34372647064501 177.0 115 141 158
31.608973492673325 68.34372647064501 177.0 113 145 160
32.463270073556394 68.34372647064501 177.0 117 148 161
33.317566654439446 68.34372647064501 177.0 130 155 164
34.17186323532252 68.34372647064501 177.0 131 158 166
35.026159816205585 68.34372647064501 177.0 127 154 162
35.880456397088636 68.34372647064501 177.0 124 154 161
36.73475297797171 68.34372647064501 177.0 119 152 159
37.589049558854754 68.34372647064501 177.0 119 150 157
38.44334613973783 68.34372647064501 177.0 121 153 160
39.2976427206209 68.34372647064501 177.0 123 152 159
40.15193930150395 68.34372647064501 177.0 123 151 155
41.00623588238702 68.34372647064501 177.0 138 163 165
41.86053246327009 68.34372647064501 177.0 134 159 160
42.71482904415314 68.34372647064501 177.0 132 158 156
43.56912562503621 68.34372647064501 177.0 138 165 160
44.42342220591926 68.34372647064501 177.0 139 163 162
45.27771878680233 68.34372647064501 177.0 141 164 165
46.1320153676854 68.34372647064501 177.0 141 163 167
46.98631194856845 68.34372647064501 177.0 135 160 162
47.84060852945152 68.34372647064501 177.0 136 161 161
48.694905110334574 68.34372647064501 177.0 139 164 164
49.54920169121764 68.34372647064501 177.0 136 161 161
50.40349827210071 68.34372647064501 177.0 136 161 161
51.257794852983764 68.34372647064501 177.0 136 162 162
52.11209143386684 68.34372647064501 177.0 138 163 163
52.9663880147499 68.34372647064501 177.0 138 163 163
53.820684595632954 68.34372647064501 177.0 138 164 164
54.67498117651603 68.34372647064501 177.0 139 166 166
55.52927775739907 68.34372647064501 177.0 133 162 165
56.383574338282145 68.34372647064501 177.0 129 158 161
57.23787091916522 68.34372647064501 177.0 133 162 165
58.09216750004827 68.34372647064501 177.0 132 161 166
58.946464080931335 68.34372647064501 177.0 133 162 167
59.80076066181439 68.34372647064501 177.0 125 156 161
60.65505724269746 68.34372647064501 177.0 132 161 164
61.509353823580525 68.34372647064501 177.0 134 163 166
62.36365040446358 68.34372647064501 177.0 132 161 164
63.21794698534665 68.34372647064501 177.0 132 163 166
64.0722435662297 68.34372647064501 177.0 123 156 160
64.92654014711277 68.34372647064501 177.0 123 155 163
65.78083672799583 68.34372647064501 177.0 123 154 162
66.63513330887889 68.34372647064501 177.0 125 157 164
67.48942988976196 68.34372647064501 177.0 124 155 162
68.34372647064504 68.34372647064501 177.0 124 157 164
69.1980230515281 68.34372647064501 177.0 121 156 163
70.05231963241113 68.34372647064501 177.0 124 157 164
70.9066162132942 68.34372647064501 177.0 121 154 161
71.76091279417727 68.34372647064501 177.0 141 172 175
72.61520937506035 68.34372647064501 177.0 142 173 176
73.46950595594342 68.34372647064501 177.0 140 171 174
74.32380253682645 68.34372647064501 177.0 141 167 171
75.17809911770951 68.34372647064501 177.0 143 169 173
76.03239569859258 68.34372647064501 177.0 147 173 177
76.88669227947565 68.34372647064501 177.0 139 167 171
77.74098886035873 68.34372647064501 177.0 137 167 166
78.59528544124176 68.34372647064501 177.0 130 156 165
79.44958202212483 68.34372647064501 177.0 128 154 168
80.3038786030079 68.34372647064501 177.0 126 154 166
81.15817518389096 68.34372647064501 177.0 124 152 162
83.86586095719831 69.8882174643319 181.0 119 149 161
85.20763750796377 70.27434021275363 182.0 81 112 133
86.5590671274398 70.66046296117536 183.0 49 79 105
87.92014981562639 71.04658570959707 184.0 50 85 105
88.80823213699635 71.04658570959707 184.0 48 82 105
90.18379442824876 71.4327084580188 185.0 42 76 98
91.5690097882117 71.81883120644052 186.0 57 94 116
92.96387821688513 72.20495395486225 187.0 99 143 164
93.86644014132092 72.20495395486225 187.0 123 173 193
95.27578817306022 72.59107670328396 188.0 119 175 194
96.69478927351007 72.97719945170569 189.0 119 176 199
97.60700426665639 72.97719945170569 189.0 115 169 192
99.040484970172 73.36332220012741 190.0 112 165 189
100.4836187423982 73.74944494854914 191.0 102 161 184
101.40548680425508 73.74944494854914 191.0 103 161 184
102.86310017954709 74.13556769697087 192.0 106 159 183
100.00579184122634 71.4327084580188 185.0 100 157 178
99.80790393266018 70.66046296117536 183.0 99 151 172
100.14093480317392 70.27434021275363 182.0 99 143 166
101.57441550668958 70.66046296117536 183.0 54 93 116
102.45767129370428 70.66046296117536 183.0 20 54 80
103.34092708071898 70.66046296117536 183.0 35 66 97
103.6546518138116 70.27434021275363 182.0 39 67 99
103.3843658899164 69.50209471591018 180.0 42 70 102
104.83232619649786 69.8882174643319 181.0 40 65 96
106.87395022877773 70.66046296117536 183.0 39 63 90
108.9348803984787 71.4327084580188 185.0 22 46 72
109.82778925420389 71.4327084580188 185.0 29 53 84
110.72069810992913 71.4327084580188 185.0 34 66 99
111.61360696565438 71.4327084580188 185.0 28 64 102
111.2902291638512 70.66046296117536 183.0 34 48 63
117.69021371894127 74.13556769697087 192.0 2 0 0
-116.7635191227291 73.88941444485202 189.0 0 0 0
-119.52912330829967 76.23511014151399 195.0 20 29 37
-117.97980578025752 75.844160858737 194.0 22 42 48
-117.64677490974378 76.23511014151399 195.0 29 42 40
-116.70560071046584 76.23511014151399 195.0 35 46 47
-115.76442651118789 76.23511014151399 195.0 37 46 52
-114.82325231190993 76.23511014151399 195.0 30 44 46
-113.88207811263199 76.23511014151399 195.0 40 55 55
-113.52008803598662 76.62605942429099 196.0 47 63 65
-113.14844489063073 77.01700870706797 197.0 47 65 69
-112.76714867656426 77.40795798984497 198.0 56 65 75
-112.37619939378726 77.79890727262196 199.0 59 71 73
-111.41571905708824 77.79890727262196 199.0 89 80 76
-110.45523872038919 77.79890727262196 199.0 127 66 45
-109.49475838369014 77.79890727262196 199.0 137 57 22
-108.53427804699112 77.79890727262196 199.0 160 89 53
-107.57379771029208 77.79890727262196 199.0 171 106 72
-106.07757206015792 77.40795798984497 198.0 201 144 115
-105.12191825781414 77.40795798984497 198.0 207 158 133
-104.16626445547037 77.40795798984497 198.0 202 142 109
-103.21061065312662 77.40795798984497 198.0 169 89 53
-102.25495685078285 77.40795798984497 198.0 151 83 51
-101.29930304843907 77.40795798984497 198.0 186 131 102
-100.34364924609531 77.40795798984497 198.0 195 138 106
-99.38799544375155 77.40795798984497 198.0 192 130 97
-98.43234164140777 77.40795798984497 198.0 201 143 107
-97.47668783906401 77.40795798984497 198.0 194 136 99
-96.03355406683784 77.01700870706797 197.0 195 137 101
-95.08272679884934 77.01700870706797 197.0 202 144 108
-94.13189953086084 77.01700870706797 197.0 201 136 102
-93.18107226287235 77.01700870706797 197.0 208 138 103
-92.23024499488386 77.01700870706797 197.0 181 107 75
-91.27941772689536 77.01700870706797 197.0 169 98 66
-90.32859045890687 77.01700870706797 197.0 198 131 93
-89.37776319091837 77.01700870706797 197.0 196 124 88
-88.42693592292989 77.01700870706797 197.0 194 119 85
-87.47610865494138 77.01700870706797 197.0 208 132 96
-86.08606676062318 76.62605942429099 196.0 210 144 106
-85.14006602698997 76.62605942429099 196.0 207 139 100
-84.19406529335674 76.62605942429099 196.0 209 135 98
-83.24806455972352 76.62605942429099 196.0 205 115 82
-82.3020638260903 76.62605942429099 196.0 166 74 33
-81.35606309245706 76.62605942429099 196.0 149 54 16
-80.41006235882386 76.62605942429099 196.0 129 41 5
-79.46406162519062 76.62605942429099 196.0 113 34 8
-78.51806089155741 76.62605942429099 196.0 96 31 9
-77.5720601579242 76.62605942429099 196.0 73 26 8
-76.23511014151397 76.23511014151399 195.0 66 24 8
-75.29393594223602 76.23511014151399 195.0 60 18 10
-74.35276174295807 76.23511014151399 195.0 59 21 15
-73.41158754368011 76.23511014151399 195.0 62 24 16
-72.47041334440217 76.23511014151399 195.0 54 24 18
-70.4287893121223 75.06226229318301 192.0 42 29 32
-69.1401046392648 74.67131301040601 191.0 22 28 35
-67.86107303511785 74.28036372762901 190.0 36 65 97
-66.59169449968144 73.88941444485202 189.0 25 76 124
-65.6794795065351 73.88941444485202 189.0 27 72 119
-64.42458057416451 73.49846516207502 188.0 32 74 111
-63.179334710504456 73.10751587929803 187.0 19 52 83
-61.943741915554945 72.71656659652103 186.0 24 48 68
-60.71780218931596 72.32561731374405 185.0 32 49 58
-59.50151553178754 71.93466803096705 184.0 34 46 52
-58.29488194296965 71.54371874819005 183.0 42 53 57
-57.097901422862314 71.15276946541306 182.0 27 40 47
-55.91057397146552 70.76182018263606 181.0 28 45 54
-53.82068459563293 69.19802305152808 177.0 28 50 62
-52.966388014749874 69.19802305152808 177.0 28 57 66
-52.112091433866816 69.19802305152808 177.0 34 61 70
-51.25779485298376 69.19802305152808 177.0 39 62 73
-50.403498272100684 69.19802305152808 177.0 41 62 73
-49.549201691217625 69.19802305152808 177.0 39 61 72
-48.69490511033456 69.19802305152808 177.0 40 63 74
-47.8406085294515 69.19802305152808 177.0 42 65 77
-46.986311948568435 69.19802305152808 177.0 43 65 80
-46.13201536768537 69.19802305152808 177.0 45 67 82
-45.27771878680231 69.19802305152808 177.0 44 66 82
-44.42342220591925 69.19802305152808 177.0 39 64 81
-43.56912562503619 69.19802305152808 177.0 40 66 80
-42.71482904415312 69.19802305152808 177.0 45 70 81
-41.86053246327006 69.19802305152808 177.0 44 68 85
-41.006235882386996 69.19802305152808 177.0 46 70 87
-40.15193930150394 69.19802305152808 177.0 43 68 85
-39.29764272062087 69.19802305152808 177.0 46 72 86
-38.443346139737805 69.19802305152808 177.0 46 72 86
-37.58904955885475 69.19802305152808 177.0 47 73 87
-36.73475297797169 69.19802305152808 177.0 50 75 92
-35.88045639708863 69.19802305152808 177.0 55 80 96
-35.026159816205556 69.19802305152808 177.0 56 80 96
-34.1718632353225 69.19802305152808 177.0 55 81 95
-33.31756665443944 69.19802305152808 177.0 56 84 95
-32.46327007355637 69.19802305152808 177.0 58 86 95
-31.608973492673304 69.19802305152808 177.0 56 83 95
-30.754676911790245 69.19802305152808 177.0 59 82 95
-29.900380330907183 69.19802305152808 177.0 61 84 97
-29.046083750024124 69.19802305152808 177.0 63 87 101
-28.191787169141055 69.19802305152808 177.0 56 81 95
-27.337490588257992 69.19802305152808 177.0 54 80 94
-26.483194007374934 69.19802305152808 177.0 57 83 96
-25.62889742649187 69.19802305152808 177.0 53 81 91
-24.774600845608813 69.19802305152808 177.0 53 80 90
-23.92030426472574 69.19802305152808 177.0 54 81 91
-23.06600768384268 69.19802305152808 177.0 54 80 94
-22.21171110295962 69.19802305152808 177.0 51 77 93
-21.35741452207656 69.19802305152808 177.0 56 82 96
-20.50311794119349 69.19802305152808 177.0 55 83 97
-19.64882136031044 69.19802305152808 177.0 54 83 96
-18.79452477942737 69.19802305152808 177.0 54 83 96
-17.940228198544297 69.19802305152808 177.0 55 82 97
-17.08593161766125 69.19802305152808 177.0 57 83 98
-16.23163503677818 69.19802305152808 177.0 57 83 98
-15.377338455895128 69.19802305152808 177.0 58 84 100
-14.523041875012057 69.19802305152808 177.0 59 86 102
-13.668745294128987 69.19802305152808 177.0 60 87 104
-12.814448713245936 69.19802305152808 177.0 65 93 107
-11.960152132362866 69.19802305152808 177.0 70 98 112
-11.105855551479795 69.19802305152808 177.0 70 98 113
-10.251558970596745 69.19802305152808 177.0 74 100 116
-9.397262389713674 69.19802305152808 177.0 72 101 113
-8.542965808830624 69.19802305152808 177.0 72 100 115
-7.688669227947553 69.19802305152808 177.0 76 102 121
-6.834372647064484 69.19802305152808 177.0 74 102 121
-5.980076066181433 69.19802305152808 177.0 79 105 122
-5.125779485298363 69.19802305152808 177.0 93 118 133
-4.271482904415312 69.19802305152808 177.0 93 121 134
-3.417186323532242 69.19802305152808 177.0 96 123 138
-2.5628897426491717 69.19802305152808 177.0 99 127 141
-1.708593161766121 69.19802305152808 177.0 110 137 143
-0.8542965808830506 69.19802305152808 177.0 112 139 144
0.0 69.19802305152808 177.0 114 142 147
0.8542965808830703 69.19802305152808 177.0 116 145 151
1.7085931617661405 69.19802305152808 177.0 116 146 155
2.5628897426491912 69.19802305152808 177.0 123 150 160
3.4171863235322615 69.19802305152808 177.0 124 151 160
4.271482904415332 69.19802305152808 177.0 123 149 157
5.1257794852983825 69.19802305152808 177.0 131 156 163
5.980076066181453 69.19802305152808 177.0 133 158 165
6.834372647064503 69.19802305152808 177.0 133 162 167
7.688669227947574 69.19802305152808 177.0 134 163 168
8.542965808830644 69.19802305152808 177.0 137 166 171
9.397262389713694 69.19802305152808 177.0 131 159 167
10.251558970596765 69.19802305152808 177.0 139 166 172
11.105855551479815 69.19802305152808 177.0 142 167 171
11.960152132362886 69.19802305152808 177.0 143 170 174
12.814448713245955 69.19802305152808 177.0 143 168 173
13.668745294129007 69.19802305152808 177.0 152 173 179
14.523041875012076 69.19802305152808 177.0 146 169 174
15.377338455895147 69.19802305152808 177.0 146 169 174
16.231635036778197 69.19802305152808 177.0 148 171 175
17.085931617661267 69.19802305152808 177.0 147 170 175
17.940228198544318 69.19802305152808 177.0 139 164 170
18.794524779427388 69.19802305152808 177.0 130 154 164
19.648821360310457 69.19802305152808 177.0 126 154 164
20.50311794119351 69.19802305152808 177.0 131 157 167
21.357414522076578 69.19802305152808 177.0 125 153 165
22.21171110295963 69.19802305152808 177.0 128 154 168
23.0660076838427 69.19802305152808 177.0 123 153 161
23.92030426472577 69.19802305152808 177.0 124 151 163
24.77460084560882 69.19802305152808 177.0 128 154 169
25.628897426491893 69.19802305152808 177.0 124 155 164
26.483194007374962 69.19802305152808 177.0 120 150 162
27.337490588258014 69.19802305152808 177.0 119 150 163
28.191787169141083 69.19802305152808 177.0 119 151 159
29.046083750024135 69.19802305152808 177.0 120 150 160
29.900380330907204 69.19802305152808 177.0 117 146 158
30.754676911790273 69.19802305152808 177.0 115 141 157
31.608973492673325 69.19802305152808 177.0 114 145 159
32.463270073556394 69.19802305152808 177.0 118 149 160
33.317566654439446 69.19802305152808 177.0 130 155 164
34.17186323532252 69.19802305152808 177.0 133 159 167
35.026159816205585 69.19802305152808 177.0 128 155 162
35.880456397088636 69.19802305152808 177.0 124 153 160
36.73475297797171 69.19802305152808 177.0 119 150 157
37.589049558854754 69.19802305152808 177.0 118 151 158
38.44334613973783 69.19802305152808 177.0 119 152 159
39.2976427206209 69.19802305152808 177.0 119 149 155
40.15193930150395 69.19802305152808 177.0 122 150 155
41.00623588238702 69.19802305152808 177.0 135 161 163
41.86053246327009 69.19802305152808 177.0 137 160 167
42.71482904415314 69.19802305152808 177.0 131 156 160
43.56912562503621 69.19802305152808 177.0 136 160 162
44.42342220591926 69.19802305152808 177.0 140 163 162
45.27771878680233 69.19802305152808 177.0 141 165 165
46.1320153676854 69.19802305152808 177.0 142 164 168
46.98631194856845 69.19802305152808 177.0 138 163 165
47.84060852945152 69.19802305152808 177.0 136 161 161
48.694905110334574 69.19802305152808 177.0 139 164 164
49.54920169121764 69.19802305152808 177.0 136 162 162
50.40349827210071 69.19802305152808 177.0 136 161 162
51.257794852983764 69.19802305152808 177.0 138 163 163
52.11209143386684 69.19802305152808 177.0 138 164 163
52.9663880147499 69.19802305152808 177.0 139 166 163
53.820684595632954 69.19802305152808 177.0 137 162 161
54.67498117651603 69.19802305152808 177.0 139 166 164
55.52927775739907 69.19802305152808 177.0 136 165 167
56.383574338282145 69.19802305152808 177.0 130 160 163
57.23787091916522 69.19802305152808 177.0 132 162 165
58.09216750004827 69.19802305152808 177.0 131 160 164
58.946464080931335 69.19802305152808 177.0 129 158 162
59.80076066181439 69.19802305152808 177.0 124 153 158
60.65505724269746 69.19802305152808 177.0 132 159 161
61.509353823580525 69.19802305152808 177.0 135 161 164
62.36365040446358 69.19802305152808 177.0 134 161 164
63.21794698534665 69.19802305152808 177.0 132 164 167
64.0722435662297 69.19802305152808 177.0 129 162 167
64.92654014711277 69.19802305152808 177.0 119 152 161
65.78083672799583 69.19802305152808 177.0 120 152 161
66.63513330887889 69.19802305152808 177.0 124 158 165
67.48942988976196 69.19802305152808 177.0 122 154 161
68.34372647064504 69.19802305152808 177.0 125 158 165
69.1980230515281 69.19802305152808 177.0 124 158 165
70.05231963241113 69.19802305152808 177.0 124 157 164
70.9066162132942 69.19802305152808 177.0 120 154 161
71.76091279417727 69.19802305152808 177.0 136 166 169
72.61520937506035 69.19802305152808 177.0 143 174 177
73.46950595594342 69.19802305152808 177.0 142 174 176
74.32380253682645 69.19802305152808 177.0 143 170 174
75.17809911770951 69.19802305152808 177.0 141 167 171
76.03239569859258 69.19802305152808 177.0 147 173 177
76.88669227947565 69.19802305152808 177.0 140 169 173
77.74098886035873 69.19802305152808 177.0 139 169 170
78.59528544124176 69.19802305152808 177.0 129 157 164
79.44958202212483 69.19802305152808 177.0 129 155 170
80.3038786030079 69.19802305152808 177.0 128 155 168
81.15817518389096 69.19802305152808 177.0 124 154 162
83.86586095719831 70.76182018263606 181.0 120 152 162
85.20763750796377 71.15276946541306 182.0 102 132 152
86.5590671274398 71.54371874819005 183.0 50 82 105
87.92014981562639 71.93466803096705 184.0 47 82 103
88.80823213699635 71.93466803096705 184.0 44 78 100
90.18379442824876 72.32561731374405 185.0 43 78 100
91.5690097882117 72.71656659652103 186.0 70 109 131
92.96387821688513 73.10751587929803 187.0 115 160 180
93.86644014132092 73.10751587929803 187.0 124 176 196
95.27578817306022 73.49846516207502 188.0 118 173 192
96.69478927351007 73.88941444485202 189.0 116 171 194
97.60700426665639 73.88941444485202 189.0 116 171 194
99.040484970172 74.28036372762901 190.0 113 167 190
100.4836187423982 74.67131301040601 191.0 103 162 185
101.40548680425508 74.67131301040601 191.0 102 160 182
102.86310017954709 75.06226229318301 192.0 102 157 180
100.00579184122634 72.32561731374405 185.0 99 155 175
99.80790393266018 71.54371874819005 183.0 98 149 170
99.59070988667297 70.76182018263606 181.0 88 134 156
101.01936405583335 71.15276946541306 182.0 42 78 99
101.89779330849278 71.15276946541306 182.0 24 60 85
101.64681352201866 70.37087089985907 180.0 32 66 97
102.51558970596751 70.37087089985907 180.0 44 74 107
105.10743865474834 71.54371874819005 183.0 47 75 108
107.72824680966079 72.71656659652103 186.0 48 75 111
109.20999285672916 73.10751587929803 187.0 46 71 105
110.11255478116495 73.10751587929803 187.0 30 59 86
110.4214529799023 72.71656659652103 186.0 38 64 95
111.91767863003648 73.10751587929803 187.0 33 64 96
111.61360696565438 72.32561731374405 185.0 27 63 100
111.89837249261541 71.93466803096705 184.0 32 45 60
118.91615344518024 75.844160858737 194.0 2 0 0
-116.7635191227291 74.80162943799833 189.0 1 0 0
-118.9161534451802 76.78050852365966 194.0 22 28 36
-117.97980578025752 76.78050852365966 194.0 20 36 43
-117.04345811533484 76.78050852365966 194.0 32 44 42
-116.70560071046584 77.17628434079192 195.0 32 43 44
-115.76442651118789 77.17628434079192 195.0 34 44 48
-114.82325231190993 77.17628434079192 195.0 33 47 49
-113.88207811263199 77.17628434079192 195.0 42 58 62
-113.52008803598662 77.5720601579242 196.0 47 63 68
-113.14844489063073 77.96783597505646 197.0 48 63 71
-113.33667973048631 78.759387609321 199.0 49 65 70
-112.37619939378726 78.759387609321 199.0 54 68 70
-111.41571905708824 78.759387609321 199.0 60 71 70
-110.45523872038919 78.759387609321 199.0 96 71 60
-109.49475838369014 78.759387609321 199.0 116 48 24
-108.53427804699112 78.759387609321 199.0 139 75 43
-107.03322586250167 78.36361179218872 198.0 162 101 73
-106.07757206015792 78.36361179218872 198.0 185 129 104
-105.12191825781414 78.36361179218872 198.0 194 143 119
-104.16626445547037 78.36361179218872 198.0 191 133 101
-103.21061065312662 78.36361179218872 198.0 153 82 50
-102.25495685078285 78.36361179218872 198.0 143 86 62
-101.29930304843907 78.36361179218872 198.0 170 123 100
-100.34364924609531 78.36361179218872 198.0 186 129 103
-99.38799544375155 78.36361179218872 198.0 178 121 93
-98.43234164140777 78.36361179218872 198.0 184 133 100
-96.98438133482632 77.96783597505646 197.0 183 130 98
-96.03355406683784 77.96783597505646 197.0 183 126 96
-95.08272679884934 77.96783597505646 197.0 189 134 103
-94.13189953086084 77.96783597505646 197.0 195 137 105
-93.18107226287235 77.96783597505646 197.0 199 134 104
-92.23024499488386 77.96783597505646 197.0 187 117 87
-91.27941772689536 77.96783597505646 197.0 139 72 39
-90.32859045890687 77.96783597505646 197.0 194 127 98
-89.37776319091837 77.96783597505646 197.0 187 123 92
-88.42693592292989 77.96783597505646 197.0 192 120 90
-87.03206749425641 77.5720601579242 196.0 197 126 98
